# .PCD v0.7 - Point Cloud Data file format
VERSION 0.7
FIELDS x y z
SIZE 4 4 4
TYPE F F F
COUNT 1 1 1
WIDTH 1559
HEIGHT 1
VIEWPOINT 0 0 0 1 0 0 0
POINTS 1559
DATA ascii
-0.21153 -0.037492 -1.9119999
0.38949001 -0.020083001 -1.8729
0.36423999 -0.01836 -1.8757
0.33959001 -0.020026 -1.8676
0.34261 -0.018273 -1.8668
0.35690498 -0.018267501 -1.8662
0.37475002 -0.018270999 -1.8666
-0.35293001 0.45822999 -1.8622
-0.14098001 0.5237 -1.8674999
-0.090865999 0.46074 -1.8588001
-0.13461 0.53329003 -1.8597
0.34784999 -0.018107999 -1.85
0.38271999 -0.018097 -1.8487999
-0.43801999 0.45344999 -1.8496001
-0.70905 -0.043439999 -1.8322001
-0.69316667 -0.045276001 -1.8342667
0.11768 0.45815 -1.8346
-0.13409001 0.52653497 -1.8361499
-0.71495003 -0.043389 -1.83
-0.69683999 -0.04507 -1.8259
0.37275001 -0.015804 -1.8247
-0.32613 0.4497 -1.8275
-0.34490001 0.45005 -1.829
-0.0087689999 0.45504001 -1.8291
-0.13957 0.47341001 -1.8210499
-0.13385999 0.52350497 -1.8255999
-0.71702504 -0.043093 -1.8175499
-0.42647001 0.44501001 -1.8152
-0.13355 0.51937497 -1.8112
-0.72548497 -0.042892002 -1.8090501
-0.70345002 -0.042858001 -1.8076
-0.69499499 -0.042842001 -1.8069501
-0.6865533 -0.04282533 -1.8062334
-0.53323996 0.44117999 -1.80645
-0.25031 0.44578999 -1.8049999
-0.13922 0.46587998 -1.8085001
-0.13343999 0.517995 -1.806375
-0.64661002 0.43577 -1.7913001
-0.51985002 0.43904001 -1.7977
-0.33726999 0.44235 -1.7976
-0.31922999 0.44269001 -1.799
-0.0075580999 0.44657001 -1.795
-0.1332 0.51482499 -1.7953501
-0.64271998 0.43531999 -1.7894
-0.53301001 0.43654001 -1.7874
0.11492 0.44674999 -1.789
0.16624001 0.44648999 -1.7879
-0.71635997 -0.043736 -1.7718
-0.37994 0.43634999 -1.7798001
-0.13228001 0.43726999 -1.7704999
-0.088209003 0.44053 -1.7773
-0.055713002 0.44114 -1.7797
-0.0058209002 0.44097999 -1.7726001
-0.13269749 0.50821245 -1.772275
0.59140003 -0.35962 -1.7679
0.61957002 -0.25501001 -1.7640001
0.62404001 -0.24489 -1.7679
-0.20475 -0.054028999 -1.7627
-0.71351999 -0.045295998 -1.7643
-0.72321999 0.42783001 -1.7657
-0.63002002 0.42833999 -1.7607
-0.41435999 0.43368 -1.7690001
-0.33002001 0.43511 -1.7682
-0.32709 0.43520999 -1.7686
-0.12915 0.43489 -1.7609
-0.085316002 0.4386 -1.7695
0.043359999 0.43799001 -1.7605
0.11426 0.43968999 -1.7607
0.16503 0.43990999 -1.7616
0.20417 0.44152999 -1.7617
-0.13256499 0.5064525 -1.7663001
0.60249001 -0.29460001 -1.75765
0.63380003 -0.18395001 -1.7510999
-0.44573998 0.42952001 -1.7520001
-0.37242001 0.42989001 -1.7535
-0.40902999 0.43077001 -1.7571
-0.24868 0.43204999 -1.7558
-0.12620001 0.43441999 -1.7589999
-0.053362001 0.43559 -1.7573
-0.0039968002 0.43612 -1.753
0.047174998 0.43633002 -1.7539001
0.117805 0.43799502 -1.7539001
0.16830501 0.43806499 -1.7542
-0.13234001 0.50352502 -1.7559
0.59895998 -0.30096999 -1.7481
-0.80575001 0.41797 -1.7462
-0.71227998 0.42300999 -1.7458
-0.62197 0.42473 -1.7459
-0.61763501 0.42504999 -1.7472
-0.56456 0.42411 -1.7433
-0.30561 0.42840999 -1.7410001
-0.30950001 0.43022001 -1.7484
-0.12302 0.43035999 -1.7424999
-0.082608998 0.43234 -1.7442
-0.050785001 0.43268001 -1.7456
-0.0013222001 0.43511999 -1.749
0.050602 0.43371001 -1.7434
0.122305 0.43541002 -1.7435501
0.172755 0.43580499 -1.7451501
0.40818501 0.44027999 -1.7451
-0.13203 0.49939001 -1.7415
-0.13209 0.50022 -1.7444
0.65691501 -0.38547501 -1.73145
0.67133999 -0.33469 -1.7357
0.66429001 -0.022902001 -1.7309999
-0.69994003 0.41931999 -1.7306
-0.66191 0.41975999 -1.7323999
-0.70523 0.42061999 -1.7359
-0.66608 0.42041999 -1.7351
-0.60764003 0.42107999 -1.7309
-0.40193 0.42552 -1.7356
-0.36477 0.42523998 -1.7344999
-0.30197999 0.42706999 -1.7356
-0.29911 0.42715999 -1.7359
-0.11999 0.42796999 -1.7328
-0.079814002 0.43017 -1.7355
-0.048101999 0.43098 -1.7387
0.055666331 0.43174669 -1.7354332
0.41460428 0.43690285 -1.7349714
-0.13187501 0.49739501 -1.73455
0.65559 -0.38744667 -1.7280334
0.65209001 -0.37544999 -1.723
0.66211998 -0.34112 -1.7219
0.57982999 -0.32728499 -1.72955
-0.19978 -0.053025998 -1.7299
0.66169 -0.035649002 -1.7253
-0.69363999 0.41734999 -1.7225
-0.65373504 0.41743001 -1.7227499
-0.64915001 0.41755 -1.7233
-0.59986001 0.41992 -1.7261
-0.55598998 0.41953 -1.7244999
-0.60329998 0.42017001 -1.7271
-0.59701002 0.42013001 -1.727
-0.29455999 0.42392001 -1.7228
-0.13165501 0.49457002 -1.7247
0.6455 -0.38771001 -1.7132
0.65280998 -0.38537002 -1.7147501
0.65082997 -0.37830999 -1.7194999
0.56168997 -0.36030999 -1.7107
0.66302001 -0.32653999 -1.7119
0.67119998 -0.30487999 -1.7187001
0.68018001 -0.27401 -1.7139
0.61622 -0.19084001 -1.7186
-0.89205998 0.32189 -1.7135999
-0.79070002 0.41321 -1.7193
-0.68545002 0.41517502 -1.7135
-0.64375001 0.41599 -1.7168
-0.63836998 0.41442999 -1.7104
-0.59123999 0.41806999 -1.7185
-0.55125999 0.41812 -1.7187001
-0.54734999 0.4174 -1.7157
-0.51243496 0.417395 -1.71575
-0.43458501 0.41870499 -1.7144001
-0.39385 0.42078501 -1.7163501
-0.13395999 0.42407 -1.7171
-0.13150001 0.49250001 -1.7175
-0.90589666 -0.38361001 -1.7029333
0.64111 -0.382195 -1.7046499
0.65029001 -0.38503 -1.7093
0.55865002 -0.36043999 -1.7031
0.66922998 -0.29956999 -1.7082
0.67944002 -0.25927001 -1.7075
0.59394997 -0.23908001 -1.7071
0.69049001 -0.22246 -1.7072001
-0.97724003 -0.10677 -1.7007999
0.76850998 0.14368001 -1.704
-0.78277999 0.41227999 -1.7085
-0.74368668 0.41065001 -1.7018
-0.67528003 0.41374335 -1.7075666
-0.65851498 0.41205502 -1.70065
-0.63256502 0.41364002 -1.70715
-0.24555999 0.42012 -1.7072999
-0.13117999 0.48830003 -1.70285
-0.13131 0.49002001 -1.7088
0.69072998 -0.36963001 -1.6962
0.64445001 -0.34222001 -1.6907001
0.56555003 -0.32857999 -1.6945
0.5711 -0.29374498 -1.69085
0.75871003 0.13986 -1.6993999
0.75726998 0.14135 -1.6967
-0.78728002 0.40454 -1.6971999
-0.77451003 0.40953001 -1.6971
-0.76346499 0.40794998 -1.6905501
-0.73559999 0.40972999 -1.6979001
-0.13097 0.485475 -1.6930001
0.54540002 -0.38235 -1.6895
0.63615 -0.38161001 -1.6862
0.69279999 -0.36102 -1.6811
-0.93299001 -0.26359001 -1.6805
0.67751002 -0.23359001 -1.6863
0.71187001 -0.1211 -1.6851
-0.84640002 0.34290498 -1.68565
-0.77183998 0.40467 -1.6838
-0.24369 0.48212999 -1.6858
-0.13080001 0.48331666 -1.6854668
-0.89695001 -0.37099001 -1.6782
0.664105 -0.37800002 -1.6781001
-0.897645 -0.36801499 -1.6768
0.64125001 -0.33587 -1.6778001
0.57802999 -0.244965 -1.6768501
0.71213001 -0.093447 -1.6742001
0.80713499 0.26625001 -1.6746
0.68364 0.38604 -1.6779
-0.13066 0.48148 -1.679
0.53778005 -0.37731498 -1.66725
0.54391003 -0.34814 -1.6611
0.83622503 0.23808999 -1.6631
0.80757499 0.26539499 -1.6691999
-0.83067 0.34397501 -1.6659501
-0.13030499 0.47679502 -1.6626999
-0.87931001 -0.37549999 -1.65535
0.57541001 -0.22218999 -1.6592
0.71669 -0.059214 -1.6586
0.70639002 0.15419 -1.6523
0.83868998 0.23738 -1.6582
0.84135997 0.23547 -1.6568
0.82486999 0.24087 -1.659
0.78627002 0.27748999 -1.6551
-0.13016 0.47487 -1.656
-0.99355 -0.41518 -1.6432
-1.0087 -0.36008999 -1.6447001
-1.0258 -0.35966 -1.6427
-1.0183001 -0.35473999 -1.6436
-0.99434501 -0.35336 -1.6494
0.53394997 -0.35784999 -1.6499
0.61745 -0.34812 -1.6449
-0.88914001 -0.33177501 -1.6435499
-1.0069 -0.28468999 -1.6439
0.64731002 -0.25703001 -1.6483001
-0.19186001 -0.050524 -1.6483001
-0.95436001 0.22516 -1.642
0.86158001 0.22532 -1.6431
-0.80097997 0.35519999 -1.6416
-0.78899997 0.36548001 -1.6415
-0.98954999 -0.41844001 -1.6352
-0.98505002 -0.40351999 -1.6309
-0.86004001 -0.38859999 -1.6335
-1.0063334 -0.35794333 -1.6346999
-0.88050997 -0.34185001 -1.6311001
0.61590999 -0.34277001 -1.6355
-0.98537999 -0.33254999 -1.6349
-0.89923 -0.29209 -1.6377
-0.91536999 -0.23594999 -1.6322
0.67793 -0.13689999 -1.6314
-1.0935 -0.048516002 -1.6355
0.87111998 0.29179999 -1.6301
-0.81971002 0.33546999 -1.6368001
-0.13244 0.46808001 -1.636
-0.12974 0.46935001 -1.6368001
0.51533997 -0.39206001 -1.6266
-0.86181998 -0.37417001 -1.6268001
-0.99969 -0.36366999 -1.622
-1.0053999 -0.35386997 -1.6278
-0.97713 -0.34603 -1.6269
0.55269003 -0.24815001 -1.6247
0.6652 -0.19063 -1.627
0.68435001 -0.10703 -1.6269
-0.19067 -0.033675 -1.6298
-0.78816998 0.35708001 -1.6269
0.58301997 -0.41231 -1.6178
0.5086 -0.39155 -1.6173
0.59522998 -0.36511999 -1.6134
-1.0048401 -0.35572401 -1.6153599
-0.99539 -0.35739499 -1.6129
-0.96955001 -0.34714001 -1.6164
0.6045 -0.33452001 -1.6122
0.56772 -0.18288 -1.6179
0.67176998 -0.12556 -1.6141
0.59309 -0.090396002 -1.6196001
0.59309 -0.088724002 -1.6197
0.88801998 0.33713999 -1.6126
-0.23689 0.461285 -1.6141
-0.13185 0.46076 -1.6111
-0.12926 0.46302 -1.6147
-0.96855003 -0.40145001 -1.602
0.58261001 -0.39410999 -1.6068
-0.99379498 -0.35592002 -1.60435
-0.98379499 -0.35431001 -1.6027501
-0.97915 -0.35227999 -1.6013
-0.98487997 -0.34705001 -1.6001
-0.96329999 -0.34487998 -1.6057999
0.61979002 -0.2753 -1.6082
-1.0072 -0.23198999 -1.6048
-1.0124 -0.21071 -1.6045001
0.56252003 -0.17136 -1.6005
-1.045 -0.12667 -1.6081001
-0.19427 -0.047614999 -1.6051
0.78294998 0.36320999 -1.6013
-0.12896 0.45916 -1.6012
0.84565002 0.45677003 -1.6047001
0.48243001 -0.44132999 -1.5915999
-0.96654999 -0.41014999 -1.5962
0.58113003 -0.38363001 -1.5987
0.58250999 -0.37643999 -1.5964
-1.0031 -0.35358 -1.5994999
-0.99063998 -0.35167 -1.5908
-0.980995 -0.35247999 -1.59835
-0.98079997 -0.34714001 -1.5931
0.51014 -0.34704 -1.5926
-0.95805001 -0.33818001 -1.5979
-0.96388 -0.30665001 -1.5901999
0.60641003 -0.29795 -1.596
-0.87497997 -0.27686 -1.59365
-0.99888003 -0.23244999 -1.5969
-0.90862 -0.20113 -1.5935
-1.0091 -0.19968 -1.5949
0.64194 -0.18515 -1.5943
-1.038 0.12824 -1.597
0.70108998 0.12806 -1.5948
-0.99612999 0.15663999 -1.5901
-0.80910999 0.31597 -1.5905
-0.80480999 0.32168001 -1.5937999
0.89850998 0.38922 -1.5937001
0.83827001 0.45320001 -1.5994999
-0.99997002 -0.35597 -1.5877
-0.97619998 -0.35343 -1.5838
-0.98729002 -0.34806502 -1.58595
0.58876002 -0.34783 -1.5887001
0.51257002 -0.31851 -1.5821
0.60339999 -0.28922999 -1.5844001
0.61063999 -0.26468 -1.584
-0.97672999 -0.25992 -1.5849
0.63834 -0.19226 -1.5863
0.85474002 -0.10736 -1.5819
0.86505997 -0.10887 -1.581
0.70735002 0.11756 -1.5829999
-0.13347 0.39938 -1.5829999
0.88801998 0.43166 -1.5899
0.82097 0.44152001 -1.5857
-0.12861 0.45447001 -1.5849
0.47823 -0.43472999 -1.574
-0.95604998 -0.41510999 -1.5761
0.56389999 -0.40481001 -1.5754
0.92708999 -0.40035999 -1.5709
0.92666 -0.39257833 -1.5731834
0.92767 -0.37333 -1.5727501
0.49526 -0.36605999 -1.5735
-0.98034 -0.35554001 -1.5784
-0.97673672 -0.35202333 -1.5749999
0.57565999 -0.35885 -1.571
0.51090997 -0.30748999 -1.57285
-0.85869998 -0.29265499 -1.57195
0.61522001 -0.24273001 -1.5774
0.55607003 -0.14951999 -1.5748
0.86646003 -0.11022 -1.5775
0.88292998 -0.11317 -1.5746
0.70946002 0.11239 -1.5753
0.69844002 0.12213 -1.5784
-0.80554003 0.30892 -1.571
-0.80426502 0.31063998 -1.5713
0.54632998 -0.44150999 -1.5678999
-0.898 -0.43533999 -1.5639
0.47347999 -0.43667001 -1.5687
0.92752498 -0.41340664 -1.5653332
0.48019001 -0.40355 -1.5638
0.92723995 -0.40761665 -1.56645
0.92808002 -0.39548427 -1.5687571
-0.97518504 -0.34299499 -1.5664001
-0.94971001 -0.3037 -1.5662
-0.85675001 -0.28374001 -1.5635333
-1.0017 -0.1628 -1.5646
-0.90461999 -0.147505 -1.5625
0.88317001 -0.1143 -1.5695
-0.89815998 -0.098338 -1.5664999
0.66162002 -0.074810997 -1.5671999
0.71551001 0.10215 -1.5633
-0.77689999 0.32698333 -1.5639666
0.36785001 0.39298999 -1.568
-0.12820999 0.44924 -1.5666
0.46438 -0.44694999 -1.5572
-0.89276505 -0.432735 -1.5546
0.54453999 -0.43223 -1.5588
-0.94405001 -0.41453001 -1.5548
0.47034001 -0.41499999 -1.5503
0.54728001 -0.4163 -1.5551
-0.80772001 -0.39493999 -1.5563
0.55800998 -0.38418999 -1.5528001
-0.81924999 -0.37569001 -1.5587
0.4842 -0.37869999 -1.5573
-0.81989002 -0.36070001 -1.5504
-0.93251002 -0.35675001 -1.5546
-0.98153001 -0.347 -1.5585999
-0.96846497 -0.34696501 -1.5511501
-0.96493 -0.33899999 -1.5556999
-0.83522999 -0.33324498 -1.55555
-0.93607002 -0.31832001 -1.5572
-0.94815999 -0.28549999 -1.5552
0.54035997 -0.18235999 -1.5563999
-0.99138999 -0.1745 -1.558
0.55111998 -0.14466 -1.5577
0.63770998 -0.14007001 -1.5594
-0.90217 -0.13260999 -1.5536499
0.86141002 -0.11052 -1.5592
0.88191998 -0.11492 -1.557
0.82998002 -0.10233 -1.5554
-1.0359 -0.065041997 -1.5591
0.65987003 -0.065008998 -1.5583
0.70462 0.10785 -1.5553
0.69081998 0.11693 -1.5532
0.45791 -0.45675999 -1.5446
0.46083 -0.44589999 -1.5477
-0.92941999 -0.43098 -1.5423
-0.93804997 -0.42100999 -1.5423
-0.88960999 -0.42798999 -1.5434999
0.47217 -0.41271001 -1.548
0.54510999 -0.39759001 -1.5407
-0.96533662 -0.34752336 -1.5427667
-0.95978999 -0.34954 -1.5445
-0.95216 -0.33416 -1.5407
0.49491 -0.33447999 -1.5497
0.49513999 -0.32076001 -1.5459
0.49535 -0.31191 -1.541
0.50532001 -0.27847001 -1.5432
-0.95903999 -0.23963 -1.5469
-0.88195002 -0.18823999 -1.5466
0.70801002 -0.058217 -1.541
0.68988001 0.11137 -1.5404
0.66292 0.13503 -1.5476
-0.23082 0.44341001 -1.5498
0.52372003 -0.465175 -1.5393
-0.86913002 -0.45835999 -1.5332
-0.88989002 -0.43103999 -1.5307
0.45875001 -0.43928 -1.536
-0.89482999 -0.42725 -1.5349
0.53298002 -0.42820001 -1.5323
0.47286999 -0.39542001 -1.5389
-0.92703998 -0.38855001 -1.5311
0.47318 -0.38158 -1.5355999
-0.92005002 -0.36559999 -1.5302
0.55194002 -0.36399001 -1.5301
-0.81185001 -0.35859001 -1.5344
0.48021999 -0.35440001 -1.5304
-0.96171999 -0.34467 -1.5373
-0.95458001 -0.34178001 -1.5316
0.48346999 -0.34233001 -1.534
-0.95112997 -0.33529001 -1.5387
-0.97565001 -0.18318 -1.5372
0.81873 -0.10246 -1.5328
-1.0161 -0.094998002 -1.5383
0.80896997 -0.099706002 -1.5394
-0.87518001 -0.079364002 -1.5323
0.55453002 -0.076281004 -1.5311
-0.18976 -0.041799501 -1.5374
0.70015001 0.10174 -1.5364
0.67185998 0.11994 -1.5303
-1.0003 0.12169 -1.5335
-0.80694002 0.28672001 -1.5394
-0.77787 -0.45739001 -1.5216501
0.52205998 -0.45034 -1.5286
-0.88461 -0.41925001 -1.5239
0.45986 -0.40946001 -1.5238
-0.78906 -0.38935 -1.52465
-0.80080003 -0.37305 -1.5274
-0.79566997 -0.37356001 -1.523
-0.83554 -0.29128999 -1.5271
0.59013999 -0.22892 -1.5278
-0.86155999 -0.21109 -1.5239
0.60080999 -0.20229 -1.5283999
0.59679002 -0.19513001 -1.5213
0.63145 -0.090847 -1.5211
0.70196003 -0.059059002 -1.5249
0.69853997 0.096410997 -1.5226001
-0.80427003 0.28191999 -1.5223
-0.1321 0.38198999 -1.5297
0.50651002 -0.47387001 -1.5124
-0.92779505 -0.44146502 -1.5150499
-0.86730003 -0.43182498 -1.51835
0.51828998 -0.43990001 -1.5152
0.52630001 -0.41168001 -1.5139
-0.907345 -0.4048 -1.5183001
-0.89918 -0.40024999 -1.5136
-0.91654003 -0.39322999 -1.5111001
-0.90241003 -0.393525 -1.5123
-0.78748 -0.37864 -1.5109
-0.90807998 -0.35631999 -1.511
-0.95023 -0.33928999 -1.5132999
-0.91057998 -0.33908001 -1.5194
-0.82521999 -0.29096502 -1.51315
0.50063002 -0.24000999 -1.5109
0.50502998 -0.23018999 -1.516
-0.95355999 -0.20821001 -1.5146
0.59258997 -0.20401999 -1.5177
0.51793998 -0.18626 -1.5118999
0.59788001 -0.18853 -1.5182
0.60663998 -0.15614 -1.5151
0.85478997 -0.11164 -1.5125999
0.81476003 -0.1029 -1.5161999
0.83642 -0.10753 -1.517
-1.0031 -0.064854003 -1.5148
0.70236999 -0.061838001 -1.5199
0.55321997 -0.053927999 -1.5106
-1.0129 -0.046585001 -1.5197999
0.55278999 -0.041813001 -1.5101
-1.0558 0.070413001 -1.5199
0.70868999 0.086906999 -1.5185
-0.78222001 0.29374 -1.5187
0.44804999 -0.42857999 -1.5099
-0.89918 -0.41833001 -1.5087
-0.77012998 -0.41538 -1.5099
-0.87996 -0.40041 -1.508
-0.946275 -0.33875501 -1.50385
-0.93707001 -0.33994001 -1.5021
0.54773003 -0.33173999 -1.5079
0.48209 -0.30098999 -1.5035
0.55993003 -0.29589999 -1.5095
0.52064002 -0.15029 -1.5026
0.53113002 -0.12511 -1.5089
0.81972998 -0.10385 -1.508
0.82156003 -0.10518 -1.5055
0.83978999 -0.10933 -1.5012
0.84079999 -0.10837 -1.5079
0.80005997 -0.098981999 -1.5046
0.55278999 -0.043302 -1.51
0.67458999 -0.045405 -1.50525
0.68330997 -0.049302001 -1.5094
-1.0134 -0.026672 -1.5055
0.64779997 -0.013038499 -1.50535
0.69283998 0.090456001 -1.502
0.49133 -0.48715001 -1.4921
-0.83226001 -0.47713 -1.4921
-0.73777002 -0.46524 -1.4902
-0.84653002 -0.45091 -1.4971
0.43562001 -0.45478001 -1.4993
-0.89771998 -0.44312 -1.4929
-0.76757002 -0.43054 -1.5
0.43917999 -0.43966001 -1.498
0.51002002 -0.43746999 -1.4958
-0.85938001 -0.42379001 -1.4991
-0.76328999 -0.42054999 -1.4934
-0.90754002 -0.41154 -1.4901
-0.86343002 -0.41354001 -1.4914
-0.76244003 -0.41857001 -1.4921
0.44690999 -0.41012001 -1.4966
-0.89231002 -0.40163001 -1.4946001
-0.76159 -0.4091 -1.4929
-0.89328998 -0.39611 -1.4979
0.52320999 -0.39287999 -1.4977
-0.89155996 -0.37966001 -1.49605
0.52728999 -0.37085 -1.4924001
-0.79022998 -0.3531 -1.4974
0.45964 -0.35644999 -1.4919
-0.93485999 -0.33791 -1.4931
0.52570999 -0.12992001 -1.4967
-0.87094998 -0.074579 -1.497
0.64823002 -0.024362501 -1.49755
-0.77564001 0.28518999 -1.4941499
-0.21867999 0.32643002 -1.49716
0.48714 -0.48684001 -1.4815
-0.83244002 -0.47396001 -1.4871
-0.82766998 -0.47576001 -1.4832
0.42050999 -0.47856 -1.4809999
-0.751755 -0.46482 -1.48125
0.42682999 -0.4659 -1.487
-0.73528999 -0.45706001 -1.4801
0.49623999 -0.45684999 -1.4848
0.49715 -0.44955 -1.4821
-0.76200998 -0.42877001 -1.4883
-0.90354002 -0.40079999 -1.4858
-0.86251998 -0.39827999 -1.4878
0.44602001 -0.39241999 -1.484
-0.88248998 -0.37481001 -1.4895999
-0.78235 -0.36491501 -1.4813499
0.52969003 -0.35558 -1.4883
0.45945999 -0.34737 -1.4864
0.53288001 -0.34095001 -1.4857
-0.92711002 -0.33063999 -1.4816
-0.92951 -0.32883999 -1.4805
0.54575998 -0.30596 -1.4895
-0.80988997 -0.29484001 -1.4884
0.54997998 -0.28453001 -1.4838001
0.48475999 -0.26561001 -1.4892
0.48636001 -0.25345001 -1.4884
0.50573999 -0.17701 -1.4855
0.52433002 -0.12027 -1.4881999
-0.86067998 -0.091614 -1.4835
-0.84794003 -0.078529 -1.4891
-0.77538002 0.28185001 -1.4881001
-0.21749 0.32859001 -1.4828
0.58573002 0.34000999 -1.4852
-0.13095 0.3655 -1.4852999
-0.13108 0.37887001 -1.4872
-0.13108 0.38005 -1.4868
0.41488999 -0.49188 -1.4765
-0.73159999 -0.46551001 -1.4758
0.48785001 -0.46697 -1.4751
-0.88788003 -0.43516001 -1.4771
-0.75147003 -0.43024999 -1.4711
-0.86448002 -0.42149001 -1.4791
-0.75147003 -0.42735001 -1.472
-0.90053999 -0.41723001 -1.4759001
-0.85964 -0.41310999 -1.4783
-0.85285997 -0.40841001 -1.4787
-0.77803999 -0.35321 -1.4783
-0.77956003 -0.34962001 -1.4761
-0.88764 -0.33482999 -1.4795001
-0.80061001 -0.30430001 -1.4741
-0.79640001 -0.30531999 -1.4715
-0.80767 -0.29139999 -1.4787
-0.89827001 -0.27175999 -1.472
-0.90452999 -0.25696 -1.4744
0.55711001 -0.24331 -1.4753
0.50198001 -0.16486999 -1.472
0.82534665 -0.10685333 -1.4736334
0.83208001 -0.10886 -1.4749
-0.97451001 -0.068788998 -1.4712
0.68831998 0.078745998 -1.4786
-0.91009003 0.15666001 -1.471
-0.81485999 0.23804 -1.473
-0.13073 0.37309 -1.4742
0.46935999 -0.50103998 -1.4604
-0.73728502 -0.47877502 -1.46415
-0.72729498 -0.472305 -1.467
-0.90003997 -0.45229 -1.4646
-0.90389001 -0.44501999 -1.4621
-0.73457503 -0.447615 -1.4678
-0.72296 -0.44797 -1.4612
-0.90096003 -0.43206 -1.4665999
-0.88388997 -0.43456 -1.464
-0.865215 -0.43171 -1.4626501
0.49382001 -0.43013999 -1.4655
-0.85821003 -0.42104 -1.4615
-0.89554 -0.41045001 -1.4687999
0.50106001 -0.41169 -1.4676
-0.87458003 -0.39640999 -1.4636
-0.853625 -0.39840999 -1.46505
-0.75923997 -0.38661 -1.4679
-0.87380505 -0.365385 -1.46735
0.44723001 -0.36261001 -1.4656
-0.88316 -0.35510999 -1.4668
-0.77078003 -0.35561001 -1.4687999
-0.87866998 -0.34018999 -1.4622999
-0.91750002 -0.33423001 -1.47
0.46599999 -0.28024 -1.4614
0.53780001 -0.28536001 -1.4636
0.48947001 -0.20961 -1.4697
0.48778999 -0.19926 -1.4608999
0.82492501 -0.106155 -1.4672999
-0.84454 -0.090194002 -1.4605
0.60579002 -0.078833997 -1.4674
-0.18054999 -0.043570999 -1.4687999
-0.91241997 0.15651 -1.4694999
-0.12830999 0.41769001 -1.4612
0.46786001 -0.50266999 -1.4559
-0.79978001 -0.49952 -1.456
-0.72457999 -0.47510999 -1.45295
0.47214001 -0.47922 -1.4529001
-0.72133505 -0.46398503 -1.4558001
-0.72377998 -0.45875999 -1.4597
0.41571 -0.45023999 -1.4527
-0.86593997 -0.44361001 -1.4575
-0.82033998 -0.44251001 -1.4539
-0.81987 -0.44086999 -1.4534
-0.72696 -0.44244999 -1.4586999
0.41740999 -0.44203001 -1.4523
-0.89374495 -0.43961 -1.4542
-0.74704999 -0.43022999 -1.4549
-0.73659503 -0.43462002 -1.4563999
0.41946 -0.43571001 -1.4523
-0.74773997 -0.39539 -1.4598
0.49908 -0.39385 -1.4542
-0.86285001 -0.38817 -1.4500999
-0.86580002 -0.37639999 -1.4586
0.43805 -0.37057 -1.454
0.50142002 -0.37893 -1.4503
-0.76354998 -0.36087 -1.4586
-0.76473498 -0.35926002 -1.4583499
-0.76431 -0.34818 -1.451
-0.91759998 -0.33335999 -1.4594001
-0.91189998 -0.32980001 -1.4505
-0.87318999 -0.31621 -1.4579
0.45469001 -0.31084001 -1.4545
-0.78680003 -0.30298999 -1.4529001
0.46641001 -0.26056001 -1.4528
-0.80500001 -0.23847 -1.4541
0.48034999 -0.21928 -1.4535
0.57211 -0.15554 -1.4528
0.82067001 -0.10484 -1.4586999
-0.17761999 -0.040399998 -1.459
0.67466003 0.065932997 -1.4559
-0.2154 0.32488 -1.4592
-0.130135 0.35164499 -1.4542501
-0.12828 0.41812 -1.46
0.46132001 -0.50105 -1.4468
-0.79500002 -0.49304 -1.4418
-0.72048998 -0.4813 -1.4448
0.46669999 -0.48280999 -1.4450001
-0.72209001 -0.47855332 -1.4449334
-0.90504003 -0.46309 -1.4412
-0.80189002 -0.46539 -1.4402
0.47391999 -0.46443 -1.4479001
-0.71518666 -0.45681334 -1.4448667
0.41431001 -0.45212001 -1.4481
-0.74054998 -0.44725001 -1.4483
-0.87154001 -0.43562001 -1.441
-0.72551 -0.43347001 -1.4448
0.41523999 -0.4355 -1.4406
-0.74106997 -0.42956001 -1.4419
-0.73800999 -0.42978001 -1.4479001
0.41832 -0.42557999 -1.4446
-0.74129999 -0.41214001 -1.4411
-0.73808002 -0.41058001 -1.4408
-0.84235001 -0.40606001 -1.4475
-0.83613002 -0.39868498 -1.4407001
-0.86374998 -0.38132 -1.4478
0.49664 -0.38923001 -1.4428999
-0.86079001 -0.36407 -1.4469
-0.75590998 -0.36002001 -1.4489
-0.74962002 -0.36261001 -1.4411
0.44427001 -0.33144999 -1.4443001
-0.90644997 -0.32896999 -1.4469
0.46369001 -0.26679999 -1.4450999
0.46639001 -0.25525001 -1.4471
0.53323001 -0.25988999 -1.4402
-0.79659998 -0.24690001 -1.4423
-0.81795001 -0.20532 -1.4498
0.48311999 -0.18029 -1.4401
0.55619001 -0.18332 -1.4407001
0.49160999 -0.15312 -1.4438
-0.95297003 -0.090535 -1.4421999
0.60185999 -0.041436002 -1.4449
-0.97042 -0.026967 -1.4464
0.6595 0.057911001 -1.4408
-0.85095 0.18953 -1.4461
-0.12989999 0.34740001 -1.4455
-0.78479999 -0.49746001 -1.4315
-0.71513999 -0.48604 -1.4306999
0.46493 -0.47641999 -1.4353
-0.90395999 -0.46322501 -1.4363
-0.71555001 -0.46621999 -1.4382
-0.70946997 -0.45116001 -1.4355
-0.89758998 -0.44898 -1.4381
-0.73223495 -0.44607002 -1.4365499
-0.87392002 -0.43522999 -1.4397
-0.85038 -0.4341 -1.4311
-0.81155002 -0.43325001 -1.4332
0.47222 -0.43858999 -1.4306
-0.73593998 -0.42502999 -1.4319
-0.81862998 -0.41273499 -1.4353001
0.41573 -0.41597 -1.4328001
0.42023 -0.41016999 -1.4394
0.48480999 -0.40919 -1.436
-0.86264998 -0.39517 -1.4364001
-0.85487998 -0.3802 -1.4319
-0.85303003 -0.37507001 -1.4355
0.42692 -0.37106001 -1.4318
-0.85057998 -0.36535001 -1.4335001
-0.74918997 -0.36379999 -1.4398
-0.75854999 -0.35269001 -1.4378999
0.43232 -0.35811999 -1.4351
0.50568002 -0.33471 -1.4322
-0.90205997 -0.32045001 -1.436
-0.86118996 -0.29578501 -1.4326999
0.51787001 -0.29255 -1.4312
0.53151 -0.26504999 -1.4356
-0.88069999 -0.23920999 -1.4316
-0.82200003 -0.16019 -1.4303
-0.96713495 -0.017584499 -1.43435
-0.98065001 0.00044060001 -1.4374
-0.82590002 0.20278999 -1.4319
-0.81484997 0.21246 -1.4321001
-0.78911 0.23243 -1.4304
0.39340001 0.29469001 -1.4308
-0.21322 0.32091999 -1.4345
0.35501999 0.33419999 -1.4394
-0.7845 -0.49243 -1.4263
0.45686999 -0.47389999 -1.4226
-0.87817001 -0.45702001 -1.4292001
-0.85900998 -0.45396999 -1.4295
0.46399999 -0.454135 -1.4225
-0.70485002 -0.43765 -1.4224
-0.72687501 -0.41644502 -1.4238999
0.4136 -0.41723001 -1.4266
0.41613999 -0.40233001 -1.4232
0.41731 -0.39576 -1.4245501
0.49653 -0.34564999 -1.4214
-0.85973001 -0.33842999 -1.4289
-0.85474002 -0.31365001 -1.4256001
-0.76849002 -0.31082001 -1.4263999
0.51964003 -0.27539 -1.4202
0.45401001 -0.26523 -1.4286
0.53360999 -0.2413 -1.4263999
0.46503001 -0.23267999 -1.4284
0.46419001 -0.224225 -1.4245501
0.46719 -0.21190999 -1.424
0.54087001 -0.21257 -1.4285001
0.55628002 -0.15079001 -1.4219
0.50799 -0.062567003 -1.4265
0.59004998 -0.039400999 -1.423
0.59994 -0.013903 -1.4204
0.60312998 -0.0037968 -1.421
0.61801499 0.0450975 -1.42345
0.62382001 0.050143 -1.4258
-0.92027998 0.11867 -1.4244
-0.92027998 0.12009 -1.4243
-0.21696 0.40689999 -1.4289
-0.12741999 0.40755001 -1.4234999
-0.70191997 -0.50599998 -1.4195
-0.69787002 -0.50427997 -1.4105
-0.71020001 -0.48394001 -1.4198
-0.86276001 -0.46970001 -1.4198
-0.79092002 -0.46013999 -1.4195
-0.70361 -0.46232 -1.4117
-0.85500002 -0.45162001 -1.4170001
-0.86870003 -0.4479 -1.4148
-0.70554 -0.43627 -1.4179
0.46641001 -0.4312 -1.4116
-0.87036997 -0.42144999 -1.4147
-0.84065002 -0.42624 -1.4152
-0.72799999 -0.41709 -1.4105
0.41683 -0.38631001 -1.4151
-0.84208 -0.35675001 -1.4146
-0.74013001 -0.35363999 -1.4171
0.48988 -0.35773 -1.4158
-0.85324502 -0.34215498 -1.4164
-0.74517 -0.3448 -1.4179
0.42578 -0.34683001 -1.414
0.43608999 -0.31406999 -1.414
0.44936001 -0.26460999 -1.4174
-0.77796 -0.25038001 -1.4115
-0.87197 -0.23824 -1.4170001
0.52925998 -0.23266 -1.4187
0.79212999 -0.096252002 -1.4182
0.59514999 -0.0066451998 -1.4116
0.60565001 0.020096 -1.4148999
0.64563 0.062476002 -1.4116
-0.88630003 0.14061999 -1.413
-0.84979999 0.17297 -1.4197
-0.82560003 0.18914001 -1.4119
-0.8179 0.19799 -1.4128
-0.78849 0.22632 -1.4191
-0.77343005 0.23712666 -1.4143
-0.211475 0.31867 -1.41465
0.34439999 0.33017999 -1.4158
-0.12919 0.34457001 -1.4164
-0.12927 0.35023001 -1.4181
-0.76811999 -0.49132001 -1.4046
-0.76867998 -0.48541 -1.4016
-0.70223999 -0.46086001 -1.4024
-0.69990999 -0.46118999 -1.4033999
-0.71046996 -0.45442 -1.40405
-0.70272505 -0.45790499 -1.4078
-0.69634998 -0.44530499 -1.40675
0.47294 -0.40019 -1.4099
0.41429999 -0.38179001 -1.4096
-0.83240998 -0.34898001 -1.4044
-0.74220997 -0.34207001 -1.4006
-0.73993999 -0.34443498 -1.40115
-0.84178001 -0.31022 -1.4033
0.42817 -0.31406 -1.4007
-0.84227997 -0.30618 -1.4051
0.50194001 -0.30202001 -1.4062999
0.43798 -0.294 -1.4098001
0.45212001 -0.23161 -1.4044
-0.80466002 -0.16723999 -1.4035
-0.81352001 -0.13879 -1.4016
0.55119997 -0.13607 -1.4023
-0.90627003 -0.12448 -1.4019001
0.48104 -0.12476 -1.405
0.48714 -0.10815 -1.408
-0.82163 -0.09668 -1.4039
0.78307003 -0.094250001 -1.41
-0.92550999 -0.080987997 -1.4009
0.64236337 -0.058250334 -1.4079334
-0.17887001 -0.041731998 -1.4068
-0.17200001 -0.034641001 -1.4033999
0.59303999 0.0018248 -1.4025
0.60275 0.013114 -1.4097
-0.83326 0.17708001 -1.40095
-0.21052 0.31902999 -1.4033
-0.21033999 0.321475 -1.4007001
-0.12897 0.34369999 -1.4073
-0.12885 0.35097 -1.4004
-0.91763002 -0.52021003 -1.3924
-0.85562003 -0.494385 -1.398
-0.76589 -0.49122 -1.3999
-0.69209504 -0.49368 -1.3937
-0.84552002 -0.45888999 -1.3913
-0.78179997 -0.45001999 -1.3981
-0.69578999 -0.45987999 -1.3943
-0.84469002 -0.44867 -1.3987
-0.69225001 -0.44260001 -1.3981
-0.86925 -0.43720999 -1.3911999
-0.83322001 -0.43346 -1.3934
-0.83371001 -0.42658001 -1.3965
-0.78573501 -0.42847499 -1.39505
-0.71585 -0.41010001 -1.392
0.45975 -0.41508999 -1.3933001
-0.80067003 -0.39989001 -1.3983001
0.46731001 -0.39342001 -1.3917
0.46838999 -0.38262999 -1.3908
-0.82700998 -0.35214999 -1.3937
-0.83879 -0.34112999 -1.3908
-0.82358003 -0.34099999 -1.3902
-0.74447 -0.34180999 -1.3995
-0.73652333 -0.34439668 -1.3959999
-0.83929002 -0.31347999 -1.3981
0.49873 -0.2938 -1.395
-0.84272999 -0.27138999 -1.3918999
0.51126999 -0.25023001 -1.3952
-0.77609003 -0.21701001 -1.3917
-0.87462997 -0.19572 -1.3923
-0.88283002 -0.17587 -1.3934
-0.89161998 -0.13923 -1.392
-0.81765002 -0.10171 -1.3966
0.57493001 -0.042748999 -1.3946
-0.93816 -0.033147998 -1.3981
-0.18001001 -0.039882001 -1.3907
-0.16934 -0.030284001 -1.3957
0.50222999 -0.031753998 -1.3981
-0.90307999 0.11463 -1.3929
-0.86448997 0.14679 -1.3916
-0.83195001 0.17412999 -1.3939
-0.128566 0.32607001 -1.39448
0.33576 0.32879999 -1.3974
-0.12863 0.33133 -1.3959
-0.12875 0.34279999 -1.3983001
-0.21340001 0.39631999 -1.3904999
-0.2164 0.40009999 -1.3975
-0.74394 -0.51863003 -1.3801
-0.87739998 -0.45489001 -1.3890001
-0.85833001 -0.45434999 -1.3825999
-0.69563001 -0.45784 -1.3881
-0.70188999 -0.44459999 -1.3813
-0.71000999 -0.42519 -1.3868999
-0.70704001 -0.42473 -1.3803999
-0.85332 -0.41167 -1.3868999
0.45583999 -0.41106999 -1.3849
-0.84653997 -0.40296 -1.3827
0.46560001 -0.37954 -1.385
0.41049999 -0.36603001 -1.3898
0.47299001 -0.35973001 -1.3824
-0.82484001 -0.34446999 -1.3863
0.47523999 -0.34832001 -1.3843
0.41955 -0.33028999 -1.3884
0.47889999 -0.33498999 -1.3836
0.48543999 -0.32315001 -1.3891
0.48949999 -0.31136999 -1.3887
0.42324999 -0.30447 -1.3839
-0.83576 -0.28636 -1.3872
-0.83497 -0.27397999 -1.3831
0.43098 -0.27410999 -1.3837
0.51666999 -0.22348 -1.3881
-0.87200999 -0.19372 -1.3882999
0.54082 -0.14014 -1.3868999
-0.88520998 -0.13962001 -1.3818001
0.46933001 -0.12995 -1.3845
0.47929001 -0.10367 -1.3855
-0.94080001 -0.0079226997 -1.3882999
-0.93861997 -0.0093994001 -1.3897001
0.62263 0.080421001 -1.3812
0.60516 0.092724003 -1.3801
0.58583999 0.10991 -1.385
-0.87165999 0.13496999 -1.3848
0.67601001 0.14239499 -1.3815501
-0.1281825 0.2947475 -1.385425
-0.12819 0.31908 -1.3803
-0.12839 0.32222 -1.3878
-0.1265 0.39654499 -1.3846
-0.84946001 -0.53432 -1.3715
-0.894445 -0.51388001 -1.3735
-0.85723001 -0.50817001 -1.373
-0.84257001 -0.49144 -1.3746001
-0.75613999 -0.48010999 -1.3769
-0.83765 -0.45162001 -1.3789999
-0.76532 -0.45065999 -1.3760999
-0.84377003 -0.44003999 -1.3717999
-0.76624 -0.44995999 -1.3782001
-0.84676999 -0.43228999 -1.3796999
-0.68571001 -0.42201999 -1.3765
-0.70617998 -0.403745 -1.3756
-0.70389003 -0.38934001 -1.3717
-0.79448998 -0.37562999 -1.3707
-0.71327001 -0.36094001 -1.3759
-0.8161 -0.33048999 -1.3710999
0.41359001 -0.33105001 -1.3796
0.41246 -0.32350001 -1.3719
0.48809999 -0.29435 -1.3773
0.42724001 -0.28461 -1.3787
-0.82742 -0.27282 -1.3701
-0.75537997 -0.26122999 -1.3767999
-0.75432998 -0.25170001 -1.3710999
-0.77412999 -0.19743 -1.375
-0.86587 -0.18133 -1.3701
0.53057998 -0.15552001 -1.3758
0.47986999 -0.071052 -1.3717999
0.58556998 0.031915002 -1.3732001
0.59258997 0.10093 -1.3774
-0.78934997 0.19918001 -1.3766999
-0.77964997 0.20863999 -1.3784
-0.12795401 0.30550802 -1.37354
-0.12803666 0.31335333 -1.3751332
-0.12812001 0.32843 -1.375
-0.21387 0.39252999 -1.3707
-0.12735 0.39292002 -1.3731
-0.86071998 -0.53509998 -1.3693
-0.91362 -0.52601999 -1.3665
-0.88327003 -0.50389999 -1.3657
-0.744425 -0.48217499 -1.3635
-0.85366327 -0.45690998 -1.3659334
-0.75804996 -0.45147499 -1.36675
-0.82230002 -0.43294001 -1.3676
-0.70249999 -0.4174 -1.3664
-0.68690997 -0.41521001 -1.3688999
-0.77542996 -0.39602 -1.36145
-0.70090002 -0.39846 -1.3624001
-0.70398003 -0.38224 -1.3679
-0.81301999 -0.34894001 -1.3636
-0.82483 -0.33947 -1.3662
-0.81203997 -0.33625001 -1.365
0.49048001 -0.27557999 -1.3688
-0.82659 -0.26749 -1.3645
0.43674999 -0.23142999 -1.3681
-0.76021999 -0.22253001 -1.3661
-0.75308001 -0.22830001 -1.3621
-0.77104002 -0.19047 -1.365
-0.76936001 -0.19489001 -1.3665
0.51135999 -0.19857 -1.3641
0.4499 -0.17647 -1.365
-0.86435997 -0.15665001 -1.3609999
-0.78706998 -0.15138 -1.3633
0.45421001 -0.15716 -1.3654
-0.79264998 -0.14381 -1.369
-0.78921002 -0.13639 -1.3637
0.53819001 -0.11609 -1.3679
0.46755001 -0.096438996 -1.3605
-0.78346002 -0.084462002 -1.3676
-0.17182 -0.036408 -1.3643
-0.16957 -0.032304998 -1.3625
0.57405001 0.011102 -1.3627
0.57713997 0.022389 -1.3631999
0.58335 0.033050001 -1.3641
0.61686999 0.075240999 -1.3617001
0.60105997 0.087774001 -1.3631999
-0.91384 0.091935001 -1.3684
0.59103 0.096029997 -1.3648
0.58148998 0.10438 -1.3673
-0.83662999 0.15218 -1.3645
-0.12774999 0.28623 -1.3691
-0.1276 0.29857001 -1.3602999
-0.12785 0.30759999 -1.3686
-0.20711499 0.316035 -1.3641
-0.1279 0.33794999 -1.3634
-0.12608001 0.391745 -1.3666999
-0.85026002 -0.52445 -1.3539
-0.88703001 -0.51555002 -1.3515
-0.84676999 -0.507985 -1.3537
-0.83025998 -0.48282 -1.3545001
-0.82977003 -0.48796999 -1.3518
-0.85367 -0.463085 -1.352
-0.83530003 -0.43158999 -1.359
-0.82981998 -0.42466 -1.3512
-0.82283998 -0.38062999 -1.3516999
-0.79075998 -0.36168 -1.3565
0.45765001 -0.36074001 -1.3586
-0.70372999 -0.35457999 -1.3571
-0.80870497 -0.331545 -1.35745
-0.71794999 -0.32574001 -1.35145
-0.81253999 -0.28733 -1.3511
-0.73343003 -0.28625 -1.3558
0.42322001 -0.24669001 -1.3514
-0.75073999 -0.23109999 -1.3571
0.43314999 -0.20931 -1.3512
-0.86065 -0.15735 -1.355
0.52054 -0.15003 -1.3511
0.52629 -0.13590001 -1.3587
0.46926001 -0.093575001 -1.3588001
0.46505001 -0.087451003 -1.3502001
-0.89523 -0.072561003 -1.3506
0.55013001 -0.049754001 -1.3532
0.61282998 0.062792003 -1.3554
0.60284001 0.083082996 -1.3566999
-0.85376 0.12754001 -1.3518
-0.20668 0.31689 -1.3588001
-0.12581749 0.38873124 -1.3555875
-0.84876001 -0.54899001 -1.3413
-0.83241338 -0.53292334 -1.3454
-0.85601997 -0.46788999 -1.3464
-0.83256 -0.46285999 -1.3491
-0.82981998 -0.45561001 -1.3411
-0.83304 -0.44097 -1.3465
-0.81746 -0.43367001 -1.3473001
-0.76082999 -0.41088 -1.345
-0.76197004 -0.39436001 -1.3411
-0.81985003 -0.37788001 -1.3471
-0.78546 -0.35780999 -1.3476
-0.81436002 -0.33643001 -1.3482
-0.79952002 -0.33217999 -1.3484
-0.79973 -0.32971001 -1.3442
-0.72121 -0.32536 -1.3498
-0.71152002 -0.32606 -1.3408
-0.70936 -0.32631999 -1.3419
0.47035 -0.30087 -1.3482
-0.72671998 -0.29876 -1.3451
0.40992001 -0.28938001 -1.3474
-0.73456001 -0.27711999 -1.3491
0.41192999 -0.27454001 -1.3431
-0.82994002 -0.22159 -1.3436
0.50032002 -0.19817001 -1.3415
0.43685001 -0.18148001 -1.3403
0.44139999 -0.16725001 -1.3468
0.45197999 -0.13061 -1.3461
-0.76574999 -0.072074004 -1.3415999
-0.16452999 -0.027871 -1.3489
-0.20522666 0.31576666 -1.3420334
-0.21187 0.38629001 -1.3497
-0.20958 0.38481 -1.3493
-0.12597883 0.3856788 -1.3461058
-0.84253001 -0.54482001 -1.33135
-0.81992 -0.48598 -1.334
-0.72930503 -0.47786501 -1.3386
-0.83376002 -0.45852 -1.3365
-0.81770003 -0.4551 -1.3352
-0.77726001 -0.36862001 -1.3399
-0.80738002 -0.33610001 -1.3357
-0.79118001 -0.33265999 -1.3331
-0.79528999 -0.32519001 -1.3372
-0.78921002 -0.32247999 -1.332
-0.70903999 -0.32356501 -1.33355
0.45809999 -0.32139 -1.3334
-0.80040002 -0.28532001 -1.3351001
0.46882999 -0.28312999 -1.3314
0.47648001 -0.27237001 -1.339
0.41399997 -0.25630498 -1.3364
-0.81317002 -0.24786 -1.335
0.42201999 -0.22931001 -1.3395
-0.74467999 -0.21198 -1.3383
-0.76138002 -0.1812 -1.3383
0.43605 -0.17587 -1.3392
0.43823001 -0.15778001 -1.335
0.44597501 -0.13357 -1.3353
0.45076999 -0.11755 -1.339
0.46963999 -0.050620001 -1.3399
0.55285001 -0.019663 -1.3389
0.56487 0.041549001 -1.3306
-0.88379002 0.095982 -1.33635
-0.86680001 0.10573 -1.3322999
-0.82015002 0.14782999 -1.3374
-0.77012998 0.19149999 -1.3377
0.35784999 0.27673 -1.3369
-0.12612666 0.38238049 -1.3337191
0.52227998 0.38157001 -1.3306
-0.83429998 -0.53148001 -1.3213
-0.83455503 -0.52574497 -1.3240499
-0.83280998 -0.50739002 -1.32795
-0.72841001 -0.46759999 -1.3285
-0.81665504 -0.45643002 -1.322
-0.80563998 -0.43002 -1.3265001
-0.74246001 -0.43239999 -1.3293999
-0.81485999 -0.41161999 -1.3281
-0.74671996 -0.41221499 -1.3275501
-0.81753999 -0.40608001 -1.3293
-0.68124998 -0.36013001 -1.3243001
-0.68597001 -0.35457999 -1.3246
-0.80140001 -0.32697001 -1.3273
-0.69916999 -0.32010001 -1.3221999
-0.70502996 -0.318315 -1.3264999
-0.81594998 -0.23285 -1.3278
0.47937 -0.23365 -1.3247
0.48435 -0.21535 -1.322
0.42791 -0.1876 -1.3247
0.49061 -0.18993001 -1.3228
0.44036999 -0.14512999 -1.33
-0.85260999 -0.13970999 -1.3299
-0.85462999 -0.12051 -1.3257999
-0.8567 -0.11898 -1.3246
-0.77373999 -0.1166 -1.3281
0.44455001 -0.10811 -1.3206
0.45447999 -0.083001003 -1.3221999
-0.75796998 -0.076729998 -1.3273
0.53694999 -0.045404002 -1.32865
-0.17294665 -0.035843331 -1.3261334
-0.168375 -0.032051999 -1.325
-0.17175999 -0.028847 -1.3293999
-0.16542 -0.027434999 -1.3278
0.54584998 -0.0048646 -1.3212
0.55127001 0.0029185 -1.3262
0.59265 0.062545002 -1.3209
-0.77301002 0.18228 -1.3293
-0.20900598 0.37928703 -1.3239399
-0.12718739 0.37905255 -1.3224444
-0.209785 0.38054332 -1.3274667
-0.12701733 0.38052598 -1.32702
-0.81424999 -0.52540499 -1.31375
-0.82756996 -0.51346004 -1.31585
-0.82183999 -0.49987999 -1.3104
-0.80760998 -0.4826 -1.312
-0.80760998 -0.47330999 -1.3154
-0.82441002 -0.45547 -1.3152
-0.81119001 -0.45594999 -1.3121001
-0.80787998 -0.42379001 -1.3115
-0.79725999 -0.42820999 -1.3116
-0.7579 -0.36054 -1.3105
-0.79592001 -0.33721 -1.3148501
-0.69995999 -0.32317999 -1.3176
-0.78151 -0.31810001 -1.3139
-0.70375001 -0.31584999 -1.3163
0.45831001 -0.29260999 -1.3174
-0.78744 -0.28193 -1.3128
-0.72131997 -0.25668001 -1.3164999
-0.79587001 -0.24724001 -1.3101
0.46708 -0.24895 -1.3121001
-0.72584999 -0.23620999 -1.3162
0.40896001 -0.23301999 -1.3135999
0.41354668 -0.21551333 -1.3138666
0.48041999 -0.20886 -1.3148
-0.73752999 -0.19665501 -1.317
0.42429 -0.18109 -1.3173
0.48752001 -0.18780001 -1.3167
-0.75309998 -0.15501 -1.3116
-0.75632 -0.067867003 -1.3103
0.45102999 -0.063942 -1.3105
-0.87936997 -0.032451998 -1.3147
-0.17200287 -0.034699716 -1.3145001
-0.168615 -0.031746499 -1.312
0.55044001 0.01372 -1.3198
-0.89576 0.072678 -1.3153
-0.81449997 0.14050999 -1.3193001
-0.20717898 0.37715003 -1.31593
-0.12826312 0.3770428 -1.3154275
-0.80884999 -0.52827001 -1.3022
-0.81203997 -0.51427001 -1.3084
-0.81985003 -0.50261003 -1.3056
-0.80489999 -0.486875 -1.3053
-0.83807999 -0.46086001 -1.301
-0.79942 -0.43425 -1.3083
-0.72981 -0.40744999 -1.3005
-0.79109669 -0.33445001 -1.3069334
-0.77430499 -0.31239498 -1.3046999
-0.695005 -0.31233001 -1.3072
-0.7033 -0.29122001 -1.3049999
-0.70493001 -0.28299001 -1.3048
-0.71220499 -0.25707999 -1.3011501
0.45951 -0.25977999 -1.3046
-0.79536003 -0.24837001 -1.309
0.46358001 -0.24146 -1.3005
-0.81190997 -0.20375 -1.3067
0.47560999 -0.20615 -1.3052
0.41661 -0.18729 -1.3044
-0.74155998 -0.17605001 -1.30505
-0.74958998 -0.16389 -1.3091
0.42561999 -0.15834001 -1.3063999
0.49882001 -0.15321 -1.3076
-0.82876998 -0.14698 -1.3003
0.50221997 -0.11842 -1.3027
-0.17047 -0.0316705 -1.3089
-0.170405 -0.027674999 -1.30795
-0.16694143 -0.027314287 -1.3036715
0.46004999 -0.012822 -1.3099999
0.54282999 0.022569999 -1.301
-0.79545999 0.14964999 -1.3051
-0.77447999 0.17156 -1.309
-0.20571999 0.374834 -1.30714
-0.83437997 -0.47476 -1.2946
-0.83818001 -0.46307999 -1.2952
-0.76858997 -0.31518 -1.2961
-0.77175999 -0.30392 -1.2946
-0.70383 -0.26390001 -1.291
0.45697001 -0.25742999 -1.2995
0.46024001 -0.24499001 -1.2981
0.46597001 -0.23128 -1.2967
-0.80644 -0.193295 -1.29445
-0.73321998 -0.1822 -1.2961
-0.81588 -0.17918999 -1.2936
0.49381 -0.12117 -1.291
0.49948001 -0.11523 -1.2977
0.44839001 -0.059567999 -1.2998
-0.16372365 -0.023597728 -1.2951909
-0.15940666 -0.021668332 -1.2935333
0.45100999 -0.028008999 -1.2908
0.52449 -0.029436 -1.2961
0.54048997 0.023705 -1.2920001
0.54193997 0.032648999 -1.2944
0.54742998 0.045524001 -1.2944
-0.84091997 -0.47307 -1.2861
-0.83447999 -0.47699001 -1.2888
-0.78889 -0.46597001 -1.2829
-0.83302999 -0.45773 -1.288
-0.78806001 -0.45102999 -1.2814
-0.78706998 -0.44154999 -1.2829
-0.71986002 -0.19956 -1.2882
0.46583 -0.19842 -1.2809
-0.73255002 -0.163895 -1.28285
0.41506001 -0.16381 -1.2873
0.49290001 -0.1224 -1.2891001
0.49215999 -0.11269 -1.2836
-0.73461998 -0.071754001 -1.2855999
-0.16117001 -0.020377001 -1.2891001
0.45370999 -0.018890999 -1.2862999
0.52135998 -0.0097981002 -1.281
-0.78969997 -0.51051998 -1.2728
-0.79036999 -0.48355001 -1.2792
-0.82735997 -0.47510999 -1.2717
-0.83367002 -0.46768001 -1.2753
-0.82845002 -0.45730001 -1.275
-0.78732997 -0.44487 -1.2718
-0.69805998 -0.25942999 -1.2754
-0.78218001 -0.22510999 -1.2763
0.45344001 -0.22097999 -1.27195
-0.78138 -0.21711001 -1.27165
0.47744 -0.16145 -1.2790999
-0.81190002 -0.15343 -1.2769001
0.4752 -0.15587001 -1.2753
-0.81801999 -0.13572 -1.2798001
0.41859502 -0.13480499 -1.2769499
0.42008999 -0.11558 -1.2716
0.42332 -0.10813 -1.2740999
0.49017999 -0.10012 -1.271
0.42363 -0.096336 -1.2704
-0.8459 -0.075195998 -1.2799
0.50764328 -0.052491333 -1.2782668
0.44411999 -0.037854001 -1.2761
-0.16254 -0.020200999 -1.278
0.51659 -0.0086046997 -1.2722
0.52732003 0.014432 -1.2776999
0.56392998 0.052593 -1.2767
-0.78763998 0.14019001 -1.2792
0.3301 0.26664999 -1.2754
-0.83842999 -0.50129002 -1.2606
-0.78889 -0.50307 -1.2688
-0.85057998 -0.49274001 -1.2648
-0.84108001 -0.49860001 -1.2612
-0.78052002 -0.48120001 -1.2614
-0.69839001 -0.23966999 -1.2699
-0.77201998 -0.22724 -1.2631
-0.70453 -0.21426 -1.2666
0.46212 -0.17599 -1.2612
-0.72579002 -0.16808 -1.27
0.4736 -0.15275668 -1.2675
0.41003999 -0.13905001 -1.2627
0.47863001 -0.13288 -1.2649
-0.74063998 -0.11671 -1.2696
0.42309001 -0.088356003 -1.2646
0.42785999 -0.074353002 -1.2654999
-0.15896499 -0.018610999 -1.2672501
0.51813 0.0055485 -1.2657
0.53034002 0.040881 -1.2686
-0.84055001 -0.50081003 -1.2594
-0.84478998 -0.49434999 -1.2541
-0.80519003 -0.44408 -1.2537
-0.69937003 -0.20745 -1.2579
-0.71556002 -0.17321 -1.26
0.459245 -0.171975 -1.2559
0.47903001 -0.10396 -1.2539001
0.41527 -0.098624997 -1.252
-0.73663998 -0.075051002 -1.2566
0.42346001 -0.071106002 -1.2512
0.43141001 -0.039701 -1.2544
-0.16328 -0.021028001 -1.2569
-0.15518001 -0.018378001 -1.2514
-0.85079002 0.00038352 -1.2512
0.51141 0.0065875002 -1.2534
0.52157998 0.032979 -1.2577
-0.8617 -0.51941001 -1.2478
-0.84688997 -0.51012999 -1.2464
-0.83677 -0.49412251 -1.245325
-0.82072997 -0.47863999 -1.2434
-0.82539999 -0.46809 -1.2456
-0.76090002 -0.23288999 -1.2474999
-0.76761001 -0.20603999 -1.2411
-0.69709998 -0.20231 -1.2496001
-0.80111003 -0.12211 -1.2455
0.47674 -0.10229 -1.2496001
-0.73316002 -0.095941998 -1.2491
0.47821999 -0.095263496 -1.24825
-0.82862002 -0.063524 -1.2499
-0.73452997 -0.059423 -1.2448
0.48554 -0.058026999 -1.2410001
0.43226999 -0.020856 -1.2467
-0.83743 -0.52157998 -1.2352
-0.83737999 -0.50682002 -1.2312
-0.80365503 -0.44532001 -1.2356501
-0.74699003 -0.25062001 -1.2381999
-0.74748999 -0.24950001 -1.2393
-0.69439 -0.19033 -1.2369
-0.70596999 -0.1665 -1.2386
-0.78259999 -0.1575 -1.2378
-0.71417999 -0.14503001 -1.2378
-0.72229999 -0.097852498 -1.23435
-0.72325504 -0.088117003 -1.23455
0.47323 -0.089887999 -1.2343
-0.72521001 -0.075113997 -1.2366
0.41624999 -0.065187998 -1.2361
0.41986001 -0.053063001 -1.2394
0.48320001 -0.056674 -1.2367001
-0.83405 0.072993003 -1.2326
-0.81884003 0.084711999 -1.23175
-0.77437001 0.12016 -1.2329
-0.83793998 -0.52736002 -1.2286
-0.84470999 -0.51762003 -1.2294
-0.82327998 -0.50713998 -1.2214
-0.81494999 -0.48054001 -1.2225
-0.74181998 -0.24081001 -1.222
-0.75474 -0.19764 -1.2208
-0.76949 -0.17614999 -1.2268
-0.69060999 -0.179225 -1.2268
0.46237999 -0.12172 -1.2293
-0.71561003 -0.075607501 -1.2242
-0.70301002 -0.072186001 -1.2287
0.47147 -0.074266002 -1.2227
0.47336 -0.064456001 -1.2222
0.41665 -0.048742 -1.2278
0.42129999 -0.030322 -1.2284
-0.15403 -0.019432999 -1.2294
0.54158002 0.059448998 -1.2291
-0.82213002 -0.48704001 -1.2177
-0.75370997 -0.19629 -1.2192
-0.76165003 -0.17319 -1.2143
-0.76144999 -0.16515 -1.2108001
-0.69529003 -0.15051 -1.212
-0.70862001 -0.11933 -1.2172
-0.71289003 -0.10095 -1.2176
-0.71428001 -0.089787997 -1.2165
0.4668 -0.081409 -1.2179
0.46572337 -0.075838 -1.2146667
0.47196001 -0.063170001 -1.2196
0.46963 -0.059080999 -1.2108999
0.48370001 -0.025123 -1.2158999
-0.15533 -0.016659999 -1.2184
0.48841 -0.0020335 -1.2158999
-0.89788997 -0.59389502 -1.2019
-0.83134001 -0.51349002 -1.2031
-0.83081001 -0.49759999 -1.2088
-0.82708001 -0.49656001 -1.2029001
-0.74818999 -0.18862 -1.2025
-0.7604 -0.17111 -1.2083
-0.76091999 -0.16631 -1.2098
-0.7586 -0.16043 -1.2026
-0.69897002 -0.13294999 -1.2074
-0.77753496 -0.11413 -1.20895
0.45960498 -0.085040003 -1.2084
-0.79408002 -0.078031003 -1.2047
-0.70210999 -0.061271999 -1.2056
0.46450001 -0.069927998 -1.2096
-0.70818001 -0.054000001 -1.2036999
-0.79862499 -0.048434999 -1.2051001
0.41326001 -0.022502 -1.2069
-0.15828 -0.017685 -1.2042
0.48027 -0.00093575002 -1.2009
0.48774001 0.023215 -1.2012
0.50432003 0.043760002 -1.2085
-0.83253998 0.055729002 -1.2029999
-0.77271003 0.10489 -1.2022001
-0.86849999 -0.62169999 -1.1913
-0.74217999 -0.18900999 -1.1967
-0.76260996 -0.13109499 -1.1959
-0.77183998 -0.101815 -1.1928999
-0.70014 -0.10646 -1.199
-0.69985998 -0.090329997 -1.1912
-0.79154998 -0.071502998 -1.1971999
-0.78969997 -0.078812003 -1.198
-0.69397002 -0.074056998 -1.1992
0.45936999 -0.065494001 -1.1956
-0.70086002 -0.058304001 -1.1950001
-0.79983997 -0.042808 -1.1991
0.46950001 -0.031858999 -1.1938
0.40877497 -0.0158625 -1.1953499
0.48484001 0.024266999 -1.1959
0.49377 0.039799999 -1.1985
-0.77481002 0.098576002 -1.1978
0.47045001 0.10166 -1.1917
-0.86633998 -0.62861001 -1.1838
-0.85828 -0.59944999 -1.1873
-0.88809001 -0.58577001 -1.187
-0.73782998 -0.18121 -1.1864001
-0.73523998 -0.17952 -1.1823
-0.75384003 -0.13477001 -1.1813999
-0.78203499 -0.073875502 -1.1865499
-0.69555002 -0.073435001 -1.1891
-0.68976003 -0.071872003 -1.1833
0.47031 0.097358003 -1.183
-0.76414001 0.10255 -1.1888
-0.89930999 -0.60723001 -1.1799001
-0.76942998 -0.44167 -1.1718
-0.75342 -0.11592 -1.1706001
-0.76543665 -0.095099002 -1.1767
-0.78101999 -0.033581998 -1.1711
0.47830001 0.031987999 -1.1753
0.50714004 0.058518499 -1.1745501
-0.79601997 0.070836 -1.1762
-0.90836668 -0.62567335 -1.1618333
-0.88123 -0.58880001 -1.1691
-0.87528998 -0.57849997 -1.1693
-0.76779997 -0.067355998 -1.1651
-0.77825999 -0.032311 -1.1669
0.46599001 0.01423 -1.1619
-0.76874 0.088018999 -1.1691
0.29005 0.24555001 -1.1686
-0.91646504 -0.63344002 -1.1568
-0.91110998 -0.62537998 -1.1599
-0.88450998 -0.59636003 -1.156
-0.76108998 -0.075024001 -1.1583
-0.76134998 -0.060741 -1.1518
-0.77265 -0.0187265 -1.15115
-0.152055 -0.015833501 -1.158
0.45795 0.015786 -1.1515
-0.76055002 0.085905001 -1.1567
-0.85952997 -0.65627003 -1.1409
-0.85639 -0.64670998 -1.1459
-0.91005999 -0.63510001 -1.1429
-0.90947998 -0.63194001 -1.1437
-0.90859002 -0.62744999 -1.1496
-0.89687002 -0.61818999 -1.1404001
-0.88831002 -0.60830998 -1.1414
-0.87551999 -0.59152001 -1.1436
-0.85329002 -0.56581998 -1.1437
-0.75641 -0.059269 -1.1443
0.45783502 0.0327975 -1.14265
0.48899001 0.065652996 -1.1471
0.48741001 0.18940499 -1.1470499
-0.86075997 -0.654975 -1.1386499
-0.8558262 -0.65296131 -1.133975
-0.85448003 -0.64994001 -1.1303999
-0.88520002 -0.60743499 -1.13185
-0.87808001 -0.59859997 -1.1393
-0.74340999 -0.084000997 -1.1381
-0.74656004 -0.073545665 -1.1348
-0.74817002 -0.064303003 -1.1315
-0.766105 -0.0047573 -1.13395
0.47893 0.044349 -1.1308
-0.85576499 -0.65116501 -1.1294501
-0.85091245 -0.6493575 -1.1283001
-0.84791332 -0.64787334 -1.1251
-0.89231998 -0.6207 -1.1217999
-0.88871002 -0.61543 -1.1252333
-0.87386 -0.60136998 -1.1260999
-0.87300998 -0.59878999 -1.1212
-0.84943002 -0.56972998 -1.1258
-0.74198002 -0.075460002 -1.1289001
-0.74267995 -0.062112503 -1.1231999
-0.75600499 -0.011514001 -1.12265
0.48085999 0.061064001 -1.1253999
-0.76186001 0.071497999 -1.1292
-0.84387374 -0.64309621 -1.1149875
-0.88831002 -0.61515999 -1.1183
-0.874825 -0.60480499 -1.1138
-0.86706501 -0.59653497 -1.1126
-0.86173999 -0.58951002 -1.1171
-0.85446 -0.57920003 -1.1198
-0.74647498 -0.024771001 -1.11555
-0.76595998 0.057108998 -1.1138999
-0.75915003 0.065099999 -1.1181
0.41253 0.32088 -1.119
-0.83919001 -0.64019001 -1.109
-0.84117001 -0.63954002 -1.1079
-0.83502001 -0.63802999 -1.1079
-0.87915999 -0.60955 -1.1064
-0.74093497 -0.025037501 -1.1054499
-0.75858998 0.055491 -1.1032
0.40805501 0.31611499 -1.10875
-0.82467002 -0.63003999 -1.0941
-0.86886001 -0.60314 -1.0931
-0.86385 -0.59706998 -1.0976
0.14484 -0.0083977999 -1.0979
0.19027001 -0.0073968 -1.0936
-0.85474998 -0.59228998 -1.0852
-0.33203 -0.019959999 -1.0706
-0.14121 -0.014753 -1.0789
-0.43952999 -0.022955 -1.0579
-0.57143998 -0.025898 -1.0492001
